ply
format ascii 1.0
comment PCL generated
element vertex 570
property float x
property float y
property float z
element camera 1
property float view_px
property float view_py
property float view_pz
property float x_axisx
property float x_axisy
property float x_axisz
property float y_axisx
property float y_axisy
property float y_axisz
property float z_axisx
property float z_axisy
property float z_axisz
property float focal
property float scalex
property float scaley
property float centerx
property float centery
property int viewportx
property int viewporty
property float k1
property float k2
end_header
-0.51611453 0.59833932 1.7286849
-0.43200412 0.35176641 1.9704318
-0.44423264 0.050213829 2.2769947
-0.30087802 0.70625561 1.7108073
-0.26728329 0.13668506 1.5713853
-0.24762166 0.30502433 1.6820141
-0.23338637 0.44925737 1.6085557
-0.21361084 0.65675044 1.5909616
-0.20661967 0.60707438 1.6057788
-0.22661401 1.0246243 1.7453507
-0.17364033 0.43007722 1.4279171
-0.20686428 0.13919197 1.7861592
-0.13842803 0.42940438 1.5091345
-0.12168149 0.68980426 1.4838266
-0.10833402 0.46388143 1.4554574
-0.10770522 0.31498966 1.5150505
-0.09872172 0.53127098 1.5630579
-0.084801845 0.21974176 1.4888958
-0.049964052 0.90287006 1.4904872
-0.041618805 0.71743101 1.4516594
-0.03480915 0.78241843 1.4393463
-0.023473062 0.73424405 1.4360898
-0.0060174749 0.19837399 1.4408283
-0.0090734316 0.97908038 1.5001763
-0.00752335 0.070563495 1.5547609
0.023049116 -0.23834679 2.0855541
0.0031923228 0.86829036 1.4665838
0.014735837 0.54939032 1.3849045
0.014765372 0.6967783 1.3880966
0.032172296 0.45826289 1.3538573
0.037031282 0.6149385 1.3823459
0.043524217 0.42123967 1.3865378
0.066209637 0.10372144 1.4806852
0.05405115 0.64460009 1.3672971
0.066613249 0.51808572 1.3494406
0.072525039 0.97436798 1.4805889
0.074643485 0.89648414 1.4407248
0.088327341 0.033163227 1.5137247
0.081827328 0.44943103 1.3516108
0.08899492 0.61072499 1.3152076
0.11564999 0.080190428 1.4499286
0.093596369 0.35772502 1.309248
0.13214713 -0.048823465 1.5664394
0.14755616 -0.14102247 1.663515
0.11263138 0.73598903 1.3514051
0.11860365 0.76282954 1.3108765
0.12438314 0.68889034 1.3589841
0.14169575 1.0099202 1.5146838
0.14816138 0.86632878 1.4250448
0.14857925 0.50555193 1.3323931
0.16700248 1.0778619 1.5494235
0.25078127 -0.41217014 2.0631349
0.16386546 0.46803778 1.3714287
0.15477005 0.045224559 1.2191854
0.17174053 0.62707865 1.3392649
0.1747486 0.74022788 1.3088666
0.205503 0.8814168 1.3908975
0.21112156 0.78256309 1.3758798
0.20366997 0.60674095 1.3216323
0.23463237 0.01976365 1.5033153
0.21963608 0.42412508 1.4202994
0.21663316 0.5793547 1.3615814
0.21676736 0.58003491 1.362602
0.2454727 0.99996883 1.4881536
0.23889278 0.69881046 1.3903637
0.23671596 0.55228454 1.3511009
0.2562857 0.38657153 1.3805258
0.26828051 0.17513575 1.4134665
0.25470406 0.53457552 1.3411649
0.26535547 0.47987852 1.3616791
0.26642671 0.6899063 1.3638519
0.27228671 0.78565246 1.3705927
0.27052948 0.74234086 1.3442209
0.29947025 0.34813705 1.375631
0.33903351 1.0746117 1.486806
0.32845294 0.41827413 1.3965948
0.32092154 0.52989101 1.3481835
0.34054935 0.50502199 1.4128292
0.34809661 0.6146701 1.4393182
0.35916555 0.91556096 1.4586645
0.50540048 -0.5611676 1.98859
0.36101562 0.652583 1.4114442
0.38606736 0.4070029 1.5064954
0.50493568 -0.19036096 1.8044435
0.59273952 -0.47678822 2.0226767
0.58344495 0.49483573 1.8801346
0.59902364 -0.19483632 1.8878198
0.63861483 0.42253643 1.9699531
0.65190995 -0.73306727 1.9479125
0.8717618 0.28369138 2.4467847
0.90464127 0.071111612 2.5067387
1.0644289 0.11165827 2.6871397
0.93096322 0.039658058 2.3023691
-0.32725915 0.71676481 1.7458872
-0.2319237 0.9817639 1.7293034
-0.17458272 0.20667782 1.6967722
-0.09114106 0.81578124 1.4969546
0.081479602 -0.27383092 1.869529
0.18249159 0.54841465 1.3601216
0.19659735 0.57639223 1.3128749
0.29388434 0.71455312 1.3671064
0.77060467 -0.52214867 2.0185018
-0.20722066 0.49291945 1.5444602
-0.20948353 0.39672762 1.6046791
-0.1699691 0.60981905 1.486733
-0.16846041 0.36540046 1.549387
-0.11849437 0.53308982 1.4674987
-0.11959483 0.62409765 1.4874644
-0.096779473 0.26602584 1.5125409
-0.10497632 0.88170975 1.5576174
-0.089739725 0.68843895 1.4631208
-0.028860888 0.1348431 1.5211698
0.0091214804 0.4169991 1.383648
0.02218313 0.59480107 1.4074985
0.026807725 0.39662895 1.3767728
0.031549394 0.67397237 1.3846449
0.035234801 0.34016722 1.3845938
0.037649143 0.20021263 1.5276822
0.031062424 0.52498752 1.3789753
0.059479255 0.26146647 1.7175754
0.082367189 0.21566786 1.5021447
0.12583774 0.69476849 1.3680604
0.18411754 -0.83269376 1.7073656
0.14709049 0.8548376 1.4507713
0.16289094 0.41718489 1.5644772
0.17476033 -0.050487187 1.5604651
0.19768672 0.732692 1.3702917
0.19900069 0.38544503 1.3573319
0.20406608 0.76160151 1.3425345
0.21593297 0.6592375 1.3552932
0.21479493 0.40914005 1.3089606
0.24454124 0.97021389 1.501846
0.25520173 0.11398717 1.4706926
0.23736605 0.27824253 1.3288747
0.24753718 0.85124671 1.3899338
0.39857244 -0.5148415 2.0226898
0.2822082 0.73957306 1.4130408
0.27833685 0.65214318 1.3650483
0.301496 0.85498029 1.393185
0.33349642 0.94873232 1.4903562
0.3923406 1.2641901 1.7614058
0.43252546 -0.05088526 1.7275739
0.37658119 0.69855648 1.4310886
0.38988268 0.49560803 1.472003
0.4143053 0.0031249409 1.5149026
0.51282603 -0.60188699 1.7414805
0.48552403 -0.035733882 1.6260953
0.60845602 -0.48294571 1.9235057
0.614838 0.090537705 1.8608083
0.68187612 -0.62963706 1.9333336
0.75736743 -0.82452327 2.0722306
0.69031996 0.014565105 1.8680911
0.6668961 0.020545283 1.7691435
0.85759652 -0.51366377 2.1168647
-0.48813194 0.54023594 1.7698535
-0.38927245 0.532704 1.7566258
-0.26814905 0.54063624 1.6351979
-0.15091659 0.70290107 1.497339
0.021516455 -0.65204495 1.6186371
0.013624663 0.5521031 1.3931131
0.023565797 -0.12659633 1.7466166
0.033588741 0.43968248 1.3870151
0.054925781 -0.094495088 1.7156687
0.05254988 0.37080082 1.3455218
0.053161889 0.63086593 1.341676
0.072193466 0.79987818 1.3722241
0.10896806 0.52865756 1.3267455
0.11326031 0.88511664 1.3084911
0.15727285 0.22742277 1.4513922
0.15727285 0.22742277 1.4513922
0.15130521 0.67703152 1.3624142
0.16569884 0.60491616 1.3628607
0.1754245 0.58704191 1.3585114
0.23245214 0.22302391 1.6074952
0.21902438 0.82697433 1.382661
0.2155762 0.58209497 1.2998693
0.25131407 0.14924346 1.441354
0.23009105 0.71281046 1.3403797
0.2484964 0.80208164 1.4122589
0.33113852 -0.10468116 1.6399635
0.29823762 0.3480722 1.3792315
0.38004816 -0.18637875 1.7121457
0.33299154 0.53875774 1.3719907
0.34405956 0.78857487 1.4082942
0.51587415 1.4680334 2.0552061
0.59025377 0.44713777 1.8667144
0.68625021 -0.45896822 2.007405
0.64753956 -0.45104468 1.8051963
0.66890264 -0.01742433 1.6803364
0.83336383 -0.53182608 1.9336933
1.0637913 -1.1551498 2.1662068
-0.18103154 0.90331948 1.6000382
-0.066218972 0.71733606 1.4616948
-0.020203136 0.67532462 1.4247108
0.0066675204 0.68461913 1.4229962
0.055521727 0.47598523 1.4698532
0.069346562 0.93585473 1.5025187
0.072690219 0.37976652 1.3337722
0.078029528 0.69309014 1.3569663
0.1702311 0.16887181 1.5471944
0.14751467 0.49757147 1.2500319
0.17246772 0.70162588 1.327773
0.25315589 -0.00023072794 1.5034785
0.26911277 0.69821864 1.3024086
0.33991751 -0.015662562 1.5728662
0.37557331 0.041205816 1.6210353
0.32228503 0.72295535 1.3647412
0.36559436 0.69797522 1.4256551
0.59175515 -0.47049326 1.8692502
0.75765711 -0.51712763 1.9859952
1.0306623 -0.79885334 2.0839834
0.8677237 -0.19413655 1.725957
-0.59856421 0.70463806 2.3506312
-0.38666892 0.33239013 1.6072215
-0.23398212 0.48465338 1.5779215
-0.17688726 0.837825 1.5526724
-0.16014317 0.3298856 1.631757
-0.12169863 0.69413173 1.4905511
-0.20033316 -0.35376012 2.866432
-0.11278117 0.15451217 1.6629159
-0.10153714 -0.09713345 1.7183875
-0.086041063 0.22563793 1.5290711
-0.083059005 0.22156152 1.5060003
-0.076855235 0.7688812 1.4560974
-0.068895921 0.27561939 1.527512
-0.029456826 0.35439813 1.4173073
-0.027134959 -0.01659207 1.6826845
0.043548342 0.42954794 1.412753
0.09254165 0.64251912 1.3706467
0.091706678 0.63468504 1.3561467
0.12425477 0.69023335 1.3621901
0.16970128 -0.16656241 1.6969416
0.25486773 -0.16366464 1.6625096
0.22896373 0.27147508 1.4852606
0.20933104 0.69029599 1.3491931
0.36177409 -0.49784476 2.1141481
0.31933576 -0.22174501 1.6949285
0.25643528 0.74011409 1.2789385
0.38233057 -0.052857932 1.6345477
0.32011819 0.66319501 1.3449935
0.42186612 -0.217862 1.738928
0.34819439 0.68247014 1.3995941
0.41306496 0.2750288 1.5289732
0.39595246 0.51319504 1.4362856
0.50107056 0.0498081 1.7196606
0.53605968 -0.19185697 1.7552319
0.69316256 -1.1186836 2.0365739
0.69612467 -0.46231577 2.0428989
0.71124452 0.8071202 1.205408
1.0049546 0.86751759 1.4368074
-0.65454656 0.70969039 2.2203968
-0.67951715 0.15835981 2.5549417
-0.41417056 0.43927783 1.6328102
-0.43943638 0.55014306 1.849202
-0.20839974 0.18459837 1.4569854
-0.21362844 0.482398 1.569139
-0.011310453 0.32096535 1.3983564
0.028249241 0.083743162 1.5402887
0.035386771 0.43318477 1.3715791
0.043366686 0.40600747 1.358346
0.075878263 0.40917575 1.3236425
0.08990138 0.42013741 1.3603939
0.16781631 0.21531323 1.3503274
0.48403987 -0.89159077 2.429148
0.28607512 0.29751831 1.4487259
0.26198933 0.63934207 1.2065083
0.38446444 -0.063516311 1.7328879
0.53813475 -1.0542786 2.0011067
0.36627519 0.68125719 1.4260926
0.45610857 -0.33372125 1.7141967
0.4305442 1.0410523 1.6007034
0.477267 0.034847647 1.7087945
0.55918938 0.50180918 1.8080809
0.56135559 0.2556912 1.7597967
0.60294908 0.23932853 1.8348948
0.8384434 0.26969299 2.324568
0.93094039 0.14440557 2.3934999
0.80548126 -0.10340422 2.0441635
0.91976416 -0.57716346 2.0967007
1.0531248 -1.1471058 1.9509782
-0.55442023 0.56641835 1.9830689
-0.45910925 0.54680401 1.7515513
-0.10360197 -0.15963858 2.2246234
-0.054442436 0.83012491 1.4843956
-0.043215353 0.58333266 1.3992423
-0.018025948 0.26634887 1.4313741
0.020759342 0.21596982 1.4279057
0.025481557 0.57277429 1.3682541
0.03134793 0.26027662 1.4187508
0.071113482 0.43043828 1.392015
0.17055391 -0.16673839 1.703373
0.14740798 0.50002933 1.3326197
0.32814443 -0.84804833 1.8715055
0.32114604 0.45865548 1.3914114
0.3434698 0.51652616 1.4314408
0.44248062 -0.26116708 1.7512745
0.33793733 0.76728386 1.3747026
0.35977313 0.67873627 1.3890874
0.39383096 0.84793878 1.4547741
0.4977797 -0.047006857 1.7329017
0.50664783 -0.068927154 1.6577688
0.65099037 -0.71184933 2.0276887
0.98110741 0.20821571 2.6266162
1.1480919 0.47197765 2.5944359
1.0763096 0.355854 2.3229387
0.92989659 -0.66855294 1.9146874
0.97600728 -0.98306942 1.8054093
-0.58624244 0.054017108 2.7935631
-0.12345015 0.22173928 1.5529169
-0.05293091 0.10221487 1.661886
-0.010542628 0.32175675 1.3948231
0.25117776 -0.40899053 1.9719936
0.31493908 0.3216401 1.3953573
0.53760439 -1.1026899 2.2510581
0.90479183 -1.212813 2.580879
1.1529702 0.38103649 2.5939548
-0.41735038 0.29806104 2.0864635
-0.2503092 0.42190897 1.6703796
-0.22680129 0.27028835 1.741088
-0.16282551 0.45493421 1.4412845
-0.14157884 0.37229216 1.5114413
-0.14879046 0.6950441 1.5397611
-0.13445754 0.35824454 1.5224192
-0.16231617 0.014070958 1.9205168
-0.13508154 0.072041847 1.7105018
-0.099418856 0.75280899 1.4722224
-0.095248684 0.91550082 1.5798823
-0.11045433 -0.13188893 2.8837831
-0.045737218 0.028046658 1.6706372
-0.04243847 0.22718655 1.4624301
-0.038712326 0.64762568 1.4000009
0.0078797024 0.27711052 1.5325153
0.0041107135 0.53810811 1.3694293
0.03742085 0.32616273 1.5101887
0.051180381 0.18650521 1.3562531
0.056724869 0.42750564 1.3453711
0.073620498 0.44614485 1.3813452
0.07611756 0.56569803 1.3733684
0.081444152 0.4382163 1.3295088
0.09792114 0.53749019 1.3744196
0.12468128 0.47338909 1.3313993
0.14738999 0.20477253 1.4850527
0.19441488 0.83637947 1.3917071
0.25087085 0.14754507 1.4341966
0.25968263 0.81120139 1.3640919
0.30231631 0.16947649 1.4342022
0.30530253 0.41369328 1.3954269
0.32341769 0.61547315 1.4389468
0.31728724 0.78403616 1.4234406
0.43260965 -0.30836284 1.7657747
0.46215981 -0.97536218 1.7650567
0.44276214 -0.26266119 1.7590622
0.44094113 -0.26188987 1.74146
0.50380605 -0.39482135 1.7935895
0.50952935 -0.013696046 1.752515
0.54966575 -0.16450919 1.7619617
0.81393164 -1.058169 2.5760534
0.63165414 -0.25065404 1.8969709
0.77096605 -0.86920732 2.208339
0.7743786 -0.77934051 2.0368867
0.77769715 -0.24957171 2.027859
1.045284 0.038141411 2.6956339
1.2834375 -1.2795031 2.024941
0.82876688 -0.57990974 1.1080379
-0.36325234 0.74431533 1.7100945
-0.25995219 0.002442796 1.86871
-0.046911824 0.32708478 1.4530296
-0.057625636 0.75589162 1.4895092
-0.0096686147 0.52890527 1.3875459
0.0071776723 0.51575398 1.3904568
0.052349783 0.37298179 1.3498787
0.073288299 0.24163345 1.3383275
0.12109374 0.44197458 1.3481071
0.14743023 0.37779361 1.3221931
0.23959139 0.23220052 1.5278322
0.19855428 0.71430153 1.2768196
0.26890123 0.42357215 1.3798385
0.27529395 0.23641954 1.3756405
0.52747625 -0.62145746 2.0518212
0.56384933 -0.46721199 2.1136971
0.52762759 -0.4506717 1.9703225
0.38924947 -0.031717971 1.3497986
0.48979136 0.15925525 1.7150828
0.50369805 0.56880873 1.6758171
0.79389387 -0.18345173 2.1575894
0.76660651 -0.55693537 1.9856589
0.56780452 -0.31008592 1.3921617
0.70405173 -0.24196617 1.446551
0.97922343 0.30872387 2.0998776
-0.24226928 0.088676587 1.3137432
-0.17296571 0.30029538 1.5637188
-0.081536852 0.21869385 1.4957716
0.030676834 -0.24440132 1.9537556
0.059294373 0.2466727 1.4353037
0.087743215 -0.024722697 1.5475938
0.12711652 0.23928741 1.4224727
0.1496391 0.37494722 1.9052161
0.15074229 0.25024176 1.4399602
0.14585575 0.35320824 1.3418434
0.14585575 0.35320824 1.3418434
0.15118156 0.2728962 1.3465871
0.20592533 0.34228444 1.3436358
0.22189878 0.39993921 1.3002715
0.26734436 0.060555052 1.5508714
0.23853584 0.71439874 1.3750443
0.32058603 -0.072624668 1.6541282
0.28375658 0.30443645 1.3740247
0.36553541 -0.10372705 1.5637243
0.40719178 0.4002406 1.6820494
0.42329028 0.25641862 1.6846611
0.35967118 0.53996396 1.3390685
0.4413031 0.48101938 1.5304983
0.43907589 0.46848741 1.4390219
0.55705172 -0.095985897 1.8136569
0.62899536 -0.49108759 2.0110054
0.5963276 0.068482041 1.9666598
0.51421279 0.25010914 1.5904812
0.69296074 -0.65572363 1.8771328
0.4892526 -0.72306418 1.0821068
0.93204778 -0.29827425 2.285398
1.1622185 0.47690213 2.5724459
-0.53508151 0.59251845 1.9319314
-0.37442443 0.41108936 1.87801
-0.2868593 0.68992329 1.691349
-0.20325059 0.48528773 1.5294974
-0.11071123 0.66386431 1.4434551
-0.0031851544 0.55881906 1.3761796
0.088468879 0.26149175 1.579721
0.13633618 0.24338201 1.7094406
0.14745739 -0.14329548 1.638828
0.18045339 0.27292728 1.5606135
0.19385359 0.27882421 1.4098668
0.22969648 0.27266267 1.5387713
0.24260905 0.63852984 1.3466069
0.3400417 -0.18969451 1.7871636
0.26465794 0.47433677 1.3514638
0.28787327 0.52073956 1.382993
0.32081982 0.1898438 1.4354128
0.31498536 0.32711688 1.3743736
0.39236626 0.28988707 1.5461643
0.35950607 0.49622142 1.360728
0.5403049 -0.4761568 1.7502465
0.5479371 0.59867007 1.8271952
0.57916284 0.19592245 1.5804493
1.0035446 -0.77606553 2.0286891
1.1343312 -1.2487767 1.986897
-0.49733981 0.56540626 1.7440569
-0.340343 0.86751044 1.7299851
-0.28109643 0.30357108 1.7368073
-0.097149439 0.43373489 1.4757653
-0.089992896 0.19601558 1.5629873
-0.072250575 0.51959598 1.4249028
-0.068535589 0.66241604 1.4451318
-0.043645483 0.21315783 1.4499431
0.03806508 0.28065488 1.3700444
0.075487189 0.17637436 1.4559216
0.10889974 0.073291525 1.4344097
0.12827215 0.28952137 1.3465219
0.18571264 0.24911845 1.553275
0.18997462 0.62252927 1.3897761
0.31921378 -0.56692761 2.4757395
0.19474033 0.74029338 1.2714777
0.26948279 -0.071971029 1.5716108
0.27632314 -0.059527919 1.652899
0.21813299 0.82689387 1.3836062
0.23551254 0.27934077 1.348581
0.34491774 -0.20740269 1.6916858
0.38397923 -0.18548088 1.7382915
0.35508299 0.46993849 1.4339654
0.40721792 0.56153154 1.4757856
0.43018392 0.87537646 1.5413178
0.63185823 0.19842054 1.8450693
1.1007929 -1.171636 2.2415278
-0.47309613 0.48052758 1.8534278
-0.31360716 0.64825028 1.7425841
-0.4219645 -0.1768477 2.9447935
-0.1766914 0.63418114 1.5331949
-0.16664049 0.45590571 1.5362149
-0.17309359 -0.051214065 2.1107068
-0.08749941 0.5884307 1.467059
-0.06456431 0.18365827 1.5140518
-0.063283689 0.18140414 1.5061892
0.1296083 -0.0070848721 1.3439012
0.12656595 0.56755024 1.3373672
0.15025482 0.66026741 1.3500282
0.15567419 0.51023519 1.2483156
0.1857949 0.42432967 1.3693693
0.20997503 0.24073525 1.5264921
0.22586513 0.40050095 1.300308
0.31293359 0.16644561 1.3779149
0.43120185 -0.94686908 1.7986958
0.31480017 0.49589297 1.4233835
0.42427018 -0.081171364 1.5650431
0.37039569 0.67811209 1.3949603
0.43251252 0.42637485 1.4672831
0.75354046 0.22537418 2.1596856
0.71206212 -0.03028225 1.9435438
0.78926826 1.0506454 1.9477149
0.80094594 0.54141498 1.6081277
0.88490987 0.64457756 1.8152384
0.83999163 1.0928069 1.7352482
-0.38347396 0.65164691 1.8370018
-0.10731678 0.39143196 1.4898931
0.02870846 0.45967507 1.4429277
0.035928871 0.34021902 1.3836187
0.035904907 0.39991555 1.3544264
0.2104504 0.2512759 1.4579424
0.19041066 0.48281658 1.2943271
0.2256089 0.37314096 1.350431
0.3122474 0.36496955 1.3830173
0.32332113 0.40036127 1.3629764
0.3523339 0.46628433 1.425423
0.88809198 -1.1397283 2.4593294
-0.52746701 0.072075799 2.7882249
0.081933707 0.11852302 1.3543686
0.20105569 0.6251443 1.3767337
0.21896774 0.42491552 1.3421295
0.23635732 0.28543723 1.3632247
0.2520144 0.5094012 1.3373387
0.30727848 0.6474064 1.3629829
0.43808791 0.29671207 1.3334886
0.58433223 0.36186182 1.9018345
0.62048918 0.091229752 1.6633228
0.69577008 0.54829741 1.3025359
-0.22753012 0.39607942 1.583737
-0.015720872 0.59062159 1.3883294
0.0082564093 0.51125866 1.3801333
0.084939763 0.52583086 1.2849277
0.1693453 0.5146839 1.3348268
0.26551729 0.62358534 1.3599784
0.43611971 0.86517984 1.587625
0.4693265 0.92170531 1.6957453
0.85734689 -1.0424981 2.5247126
0.49951977 0.079608321 1.2742884
0.62910581 -0.96090323 1.4839274
-0.26855198 0.64851344 1.6021018
-0.1927018 0.36669517 1.5654657
-0.015653981 0.24298802 1.5670259
0.23207968 0.27123076 1.4088998
0.54238194 0.54065937 1.1873622
0.81480694 0.73895597 1.6233439
-0.26887619 0.36774415 1.7658708
0.11565407 0.3309049 1.3537501
0.24612778 0.58210617 1.3664739
0.27934155 0.54691976 1.3917834
0.2768887 0.47508731 1.304981
0.40441337 0.20830382 1.4803362
0.63893658 -0.98916239 1.667407
0.72675091 0.20632881 2.126817
1.1458874 -0.97844648 1.869488
-0.17949633 0.64317489 1.5510261
0.3829307 0.49257869 1.4531058
-0.41801697 0.42537549 1.8549702
-0.34418061 0.20940734 1.833793
-0.22090921 0.30523381 1.628876
-0.092724591 0.42912227 1.437322
-0.062519118 0.56347471 1.3829799
-0.036137588 0.10532285 1.6085495
0.084120668 0.35891142 1.3856158
0.15023883 0.52370942 1.3082191
0.23971471 0.25072658 1.4725784
0.22577924 0.39905798 1.2993746
0.11595494 0.2367668 1.5967246
0.21529953 0.25159669 1.5053868
0.26950419 0.70154279 1.3801934
0.8693198 -0.10440355 2.2915692
1.0212983 0.34196672 2.8594403
0.66974133 0.070455216 1.9419972
0.83911282 -1.1517423 1.7671762
1.0525376 -0.73589176 1.3688643
0 0 0 1 0 0 0 1 0 0 0 1 0 0 0 0 0 570 1 0 0
